X Y Z R G B Scalar_field Scalar_field_#2 Scalar_field_#3 Scalar_field_#4 Scalar_field_#5 Scalar_field_#6 Scalar_field_#7 Nx Ny Nz
260732.44999695 2147512.81000042 805.26000977 1 1 0 1.000000 215371440.000000 -7.000000 28114.000000 0.000000 0.000000 0.000000 0.000000 0.000000 0.000000
260734.62000275 2147506.21999979 799.90997314 1 1 0 2.000000 215371440.000000 -7.000000 24204.000000 0.000000 0.000000 0.000000 0.000000 0.000000 0.000000
260738.63000107 2147494.32000017 800.50000000 1 1 0 2.000000 215371440.000000 -8.000000 27874.000000 0.000000 0.000000 0.000000 0.000000 0.000000 0.000000
260733.34999847 2147515.53999996 805.91998291 1 1 0 2.000000 215371440.000000 -7.000000 15225.000000 0.000000 0.000000 0.000000 0.000000 0.000000 0.000000
260734.19999695 2147513.03999996 806.33001709 1 1 0 2.000000 215371440.000000 -7.000000 31609.000000 0.000000 0.000000 0.000000 0.000000 0.000000 0.000000
260735.76999664 2147508.30000019 802.20001221 1 1 0 2.000000 215371440.000000 -7.000000 29294.000000 0.000000 0.000000 0.000000 0.000000 0.000000 0.000000
260743.79000092 2147484.56999969 803.42999268 1 1 0 2.000000 215371440.000000 -9.000000 34165.000000 0.000000 0.000000 0.000000 0.000000 0.000000 0.000000
260729.55000305 2147526.62000084 798.61999512 1 1 0 2.000000 215371440.000000 -6.000000 22128.000000 0.000000 0.000000 0.000000 0.000000 0.000000 0.000000
260708.88999939 2147588.13999939 807.91998291 1 1 0 2.000000 215371440.000000 -1.000000 19114.000000 0.000000 0.000000 0.000000 0.000000 0.000000 0.000000
260733.19000244 2147516.20999908 807.79998779 1 1 0 1.000000 215371440.000000 -7.000000 19747.000000 0.000000 0.000000 0.000000 0.000000 0.000000 0.000000
260724.63999939 2147546.08000183 804.16998291 1 1 0 2.000000 215371440.000000 -5.000000 28616.000000 0.000000 0.000000 0.000000 0.000000 0.000000 0.000000
260729.23000336 2147532.34000015 801.22998047 2 2 0 2.000000 215371440.000000 -6.000000 16143.000000 0.000000 0.000000 0.000000 0.000000 0.000000 0.000000
260735.01999664 2147515.32999992 808.20001221 1 1 0 2.000000 215371440.000000 -7.000000 20752.000000 0.000000 0.000000 0.000000 0.000000 0.000000 0.000000
260715.45999908 2147578.04000092 809.86999512 1 1 0 2.000000 215371440.000000 -2.000000 27743.000000 0.000000 0.000000 0.000000 0.000000 0.000000 0.000000
260736.90000153 2147514.64000034 810.40997314 1 1 0 2.000000 215371440.000000 -7.000000 32243.000000 0.000000 0.000000 0.000000 0.000000 0.000000 0.000000
260739.93000031 2147505.53000021 805.13000488 2 2 0 2.000000 215371440.000000 -8.000000 17454.000000 0.000000 0.000000 0.000000 0.000000 0.000000 0.000000
260732.68000031 2147533.13000107 803.71997070 1 1 0 2.000000 215371440.000000 -6.000000 24925.000000 0.000000 0.000000 0.000000 0.000000 0.000000 0.000000
260740.45999908 2147510.10000038 809.39001465 1 1 0 2.000000 215371440.000000 -7.000000 27786.000000 0.000000 0.000000 0.000000 0.000000 0.000000 0.000000
260742.09999847 2147508.27000046 809.65997314 2 2 0 2.000000 215371440.000000 -8.000000 17454.000000 0.000000 0.000000 0.000000 0.000000 0.000000 0.000000
260713.48000336 2147593.25000000 815.13000488 1 1 0 2.000000 215371440.000000 -1.000000 17672.000000 0.000000 0.000000 0.000000 0.000000 0.000000 0.000000
260715.43000031 2147587.44000244 814.40997314 1 1 0 2.000000 215371440.000000 -2.000000 16034.000000 0.000000 0.000000 0.000000 0.000000 0.000000 0.000000
260726.69999695 2147553.86000061 807.40002441 1 1 0 2.000000 215371440.000000 -4.000000 27568.000000 0.000000 0.000000 0.000000 0.000000 0.000000 0.000000
260743.72000122 2147504.98000002 808.30999756 1 1 0 2.000000 215371440.000000 -8.000000 27284.000000 0.000000 0.000000 0.000000 0.000000 0.000000 0.000000
260709.00000000 2147608.83999634 821.90002441 1 1 0 2.000000 215371440.000000 0.000000 29949.000000 0.000000 0.000000 0.000000 0.000000 0.000000 0.000000
260718.37999725 2147580.66000366 813.44000244 1 1 0 2.000000 215371440.000000 -2.000000 23876.000000 0.000000 0.000000 0.000000 0.000000 0.000000 0.000000
260741.70999908 2147516.21999931 816.94000244 1 1 0 2.000000 215371440.000000 -7.000000 21604.000000 0.000000 0.000000 0.000000 0.000000 0.000000 0.000000
260744.11999893 2147508.96000004 812.58001709 1 1 0 2.000000 215371440.000000 -8.000000 27939.000000 0.000000 0.000000 0.000000 0.000000 0.000000 0.000000
260739.50000000 2147525.88999939 818.10998535 1 1 0 2.000000 215371440.000000 -6.000000 14657.000000 0.000000 0.000000 0.000000 0.000000 0.000000 0.000000
260741.91999817 2147518.75000000 821.11999512 1 1 0 1.000000 215371440.000000 -7.000000 18502.000000 0.000000 0.000000 0.000000 0.000000 0.000000 0.000000
260710.88999939 2147608.08999634 821.94000244 1 1 0 2.000000 215371440.000000 0.000000 29381.000000 0.000000 0.000000 0.000000 0.000000 0.000000 0.000000
260713.90000153 2147599.05000305 818.46002197 1 1 0 2.000000 215371440.000000 -1.000000 18043.000000 0.000000 0.000000 0.000000 0.000000 0.000000 0.000000
260710.91000366 2147610.83999634 823.80999756 1 1 0 2.000000 215371440.000000 0.000000 14374.000000 0.000000 0.000000 0.000000 0.000000 0.000000 0.000000
260745.84000015 2147506.78999996 810.60998535 1 1 0 2.000000 215371440.000000 -8.000000 21539.000000 0.000000 0.000000 0.000000 0.000000 0.000000 0.000000
260716.75000000 2147595.56999969 820.94000244 1 1 0 2.000000 215371440.000000 -1.000000 15116.000000 0.000000 0.000000 0.000000 0.000000 0.000000 0.000000
260723.12000275 2147576.41000366 814.78002930 1 1 0 2.000000 215371440.000000 -3.000000 18743.000000 0.000000 0.000000 0.000000 0.000000 0.000000 0.000000
260725.62999725 2147568.87999725 813.34002686 1 1 0 2.000000 215371440.000000 -3.000000 26061.000000 0.000000 0.000000 0.000000 0.000000 0.000000 0.000000
260746.08000183 2147507.84000015 812.48999023 1 1 0 2.000000 215371440.000000 -8.000000 23658.000000 0.000000 0.000000 0.000000 0.000000 0.000000 0.000000
260733.05999756 2147552.13000107 811.54998779 1 1 0 2.000000 215371440.000000 -5.000000 25383.000000 0.000000 0.000000 0.000000 0.000000 0.000000 0.000000
260741.63999939 2147526.87999916 825.23999023 1 1 0 1.000000 215371440.000000 -7.000000 14876.000000 0.000000 0.000000 0.000000 0.000000 0.000000 0.000000
260752.49000168 2147497.48000002 811.48999023 1 1 0 2.000000 215371440.000000 -9.000000 32308.000000 0.000000 0.000000 0.000000 0.000000 0.000000 0.000000
260754.75000000 2147490.81999969 812.36999512 1 1 0 2.000000 215371440.000000 -9.000000 34187.000000 0.000000 0.000000 0.000000 0.000000 0.000000 0.000000
260718.00000000 2147597.20999908 822.40997314 1 1 0 2.000000 215371440.000000 -1.000000 25646.000000 0.000000 0.000000 0.000000 0.000000 0.000000 0.000000
260713.76999664 2147612.68000031 833.16998291 1 1 0 1.000000 215371440.000000 0.000000 25755.000000 0.000000 0.000000 0.000000 0.000000 0.000000 0.000000
260714.29000092 2147611.05999756 829.19000244 1 1 0 2.000000 215371440.000000 0.000000 28966.000000 0.000000 0.000000 0.000000 0.000000 0.000000 0.000000
260722.52999878 2147586.48999786 821.90002441 1 1 0 2.000000 215371440.000000 -2.000000 22762.000000 0.000000 0.000000 0.000000 0.000000 0.000000 0.000000
260736.04999924 2147546.20999908 811.53997803 1 1 0 2.000000 215371440.000000 -5.000000 27743.000000 0.000000 0.000000 0.000000 0.000000 0.000000 0.000000
260747.70000076 2147514.56000042 817.45001221 2 2 0 2.000000 215371440.000000 -7.000000 17738.000000 0.000000 0.000000 0.000000 0.000000 0.000000 0.000000
260726.86000061 2147573.44000244 815.98999023 1 1 0 2.000000 215371440.000000 -3.000000 25362.000000 0.000000 0.000000 0.000000 0.000000 0.000000 0.000000
260720.20999908 2147596.69999695 824.55999756 1 1 0 2.000000 215371440.000000 -1.000000 22412.000000 0.000000 0.000000 0.000000 0.000000 0.000000 0.000000
260729.91999817 2147567.54000092 814.97998047 1 1 0 2.000000 215371440.000000 -3.000000 25493.000000 0.000000 0.000000 0.000000 0.000000 0.000000 0.000000
260730.76999664 2147564.95999908 813.52001953 1 1 0 2.000000 215371440.000000 -4.000000 24444.000000 0.000000 0.000000 0.000000 0.000000 0.000000 0.000000
260753.04999924 2147503.66000009 813.91998291 1 1 0 2.000000 215371440.000000 -8.000000 35367.000000 0.000000 0.000000 0.000000 0.000000 0.000000 0.000000
260748.63000107 2147518.35000038 820.38000488 2 2 0 2.000000 215371440.000000 -7.000000 20250.000000 0.000000 0.000000 0.000000 0.000000 0.000000 0.000000
260740.59000015 2147547.27000046 814.46997070 1 1 0 2.000000 215371440.000000 -5.000000 29381.000000 0.000000 0.000000 0.000000 0.000000 0.000000 0.000000
260741.97999954 2147543.11000061 814.35998535 1 1 0 2.000000 215371440.000000 -5.000000 21014.000000 0.000000 0.000000 0.000000 0.000000 0.000000 0.000000
260748.65000153 2147523.39999962 824.15997314 1 1 0 2.000000 215371440.000000 -7.000000 18459.000000 0.000000 0.000000 0.000000 0.000000 0.000000 0.000000
260750.99000168 2147521.20999908 823.11999512 1 1 0 2.000000 215371440.000000 -7.000000 32439.000000 0.000000 0.000000 0.000000 0.000000 0.000000 0.000000
260751.59999847 2147519.38999939 821.82000732 1 1 0 2.000000 215371440.000000 -7.000000 33750.000000 0.000000 0.000000 0.000000 0.000000 0.000000 0.000000
260752.20000076 2147517.59000015 820.71997070 1 1 0 2.000000 215371440.000000 -7.000000 33466.000000 0.000000 0.000000 0.000000 0.000000 0.000000 0.000000
260753.38000107 2147514.06999969 819.34002686 1 1 0 2.000000 215371440.000000 -8.000000 27852.000000 0.000000 0.000000 0.000000 0.000000 0.000000 0.000000
260722.25000000 2147602.22000122 828.00000000 1 1 0 2.000000 215371440.000000 -1.000000 23942.000000 0.000000 0.000000 0.000000 0.000000 0.000000 0.000000
260723.33999634 2147598.93000031 826.64001465 1 1 0 2.000000 215371440.000000 -1.000000 24946.000000 0.000000 0.000000 0.000000 0.000000 0.000000 0.000000
260724.15000153 2147596.50000000 826.84002686 1 1 0 2.000000 215371440.000000 -1.000000 25558.000000 0.000000 0.000000 0.000000 0.000000 0.000000 0.000000
260713.44000244 2147632.94000244 849.40002441 1 1 0 2.000000 215371440.000000 1.000000 22412.000000 0.000000 0.000000 0.000000 0.000000 0.000000 0.000000
260723.84999847 2147601.76999664 829.71002197 1 1 0 1.000000 215371440.000000 -1.000000 21167.000000 0.000000 0.000000 0.000000 0.000000 0.000000 0.000000
260724.40000153 2147600.12000275 828.00000000 1 1 0 2.000000 215371440.000000 -1.000000 23286.000000 0.000000 0.000000 0.000000 0.000000 0.000000 0.000000
260733.08000183 2147574.81999969 820.89001465 1 1 0 2.000000 215371440.000000 -3.000000 18000.000000 0.000000 0.000000 0.000000 0.000000 0.000000 0.000000
260750.22999954 2147524.20999908 825.40997314 1 1 0 2.000000 215371440.000000 -7.000000 14592.000000 0.000000 0.000000 0.000000 0.000000 0.000000 0.000000
260723.26999664 2147605.56999969 832.88000488 1 1 0 2.000000 215371440.000000 -1.000000 23592.000000 0.000000 0.000000 0.000000 0.000000 0.000000 0.000000
260725.72000122 2147598.18000031 827.78002930 1 1 0 2.000000 215371440.000000 -1.000000 15684.000000 0.000000 0.000000 0.000000 0.000000 0.000000 0.000000
260734.26999664 2147572.66999817 822.69000244 1 1 0 2.000000 215371440.000000 -3.000000 23352.000000 0.000000 0.000000 0.000000 0.000000 0.000000 0.000000
260716.41999817 2147624.52999878 845.58001709 1 1 0 2.000000 215371440.000000 1.000000 30692.000000 0.000000 0.000000 0.000000 0.000000 0.000000 0.000000
260728.93000031 2147593.90000153 829.35998535 1 1 0 2.000000 215371440.000000 -2.000000 25864.000000 0.000000 0.000000 0.000000 0.000000 0.000000 0.000000
260722.94999695 2147611.77999878 836.47998047 1 1 0 2.000000 215371440.000000 0.000000 33772.000000 0.000000 0.000000 0.000000 0.000000 0.000000 0.000000
260725.66000366 2147603.66999817 832.30999756 1 1 0 2.000000 215371440.000000 -1.000000 26410.000000 0.000000 0.000000 0.000000 0.000000 0.000000 0.000000
260726.19999695 2147602.02999878 831.13000488 1 1 0 2.000000 215371440.000000 -1.000000 17956.000000 0.000000 0.000000 0.000000 0.000000 0.000000 0.000000
260725.69999695 2147606.87999725 835.71002197 1 1 0 2.000000 215371440.000000 -1.000000 25318.000000 0.000000 0.000000 0.000000 0.000000 0.000000 0.000000
260744.04000092 2147553.29999924 821.69000244 1 1 0 2.000000 215371440.000000 -5.000000 17628.000000 0.000000 0.000000 0.000000 0.000000 0.000000 0.000000
260716.95999908 2147632.86999512 850.88000488 1 1 0 2.000000 215371440.000000 1.000000 21320.000000 0.000000 0.000000 0.000000 0.000000 0.000000 0.000000
260728.80999756 2147608.41999817 841.85998535 1 1 0 2.000000 215371440.000000 -1.000000 22653.000000 0.000000 0.000000 0.000000 0.000000 0.000000 0.000000
260748.84000015 2147549.33000183 824.15997314 1 1 0 2.000000 215371440.000000 -5.000000 17476.000000 0.000000 0.000000 0.000000 0.000000 0.000000 0.000000
260724.79000092 2147617.08000183 841.98999023 1 1 0 2.000000 215371440.000000 0.000000 34580.000000 0.000000 0.000000 0.000000 0.000000 0.000000 0.000000
260728.29000092 2147606.69000244 840.04998779 1 1 0 2.000000 215371440.000000 -1.000000 23767.000000 0.000000 0.000000 0.000000 0.000000 0.000000 0.000000
260726.18000031 2147615.62000275 841.15002441 1 1 0 2.000000 215371440.000000 0.000000 30888.000000 0.000000 0.000000 0.000000 0.000000 0.000000 0.000000
260720.55000305 2147632.86000061 856.90997314 1 1 0 2.000000 215371440.000000 1.000000 24182.000000 0.000000 0.000000 0.000000 0.000000 0.000000 0.000000
260722.36000061 2147627.45999908 849.19000244 1 1 0 2.000000 215371440.000000 1.000000 36087.000000 0.000000 0.000000 0.000000 0.000000 0.000000 0.000000
260727.95999908 2147612.51999664 841.00000000 1 1 0 2.000000 215371440.000000 -1.000000 24269.000000 0.000000 0.000000 0.000000 0.000000 0.000000 0.000000
260730.12999725 2147606.15000153 841.89001465 1 1 0 2.000000 215371440.000000 -1.000000 14941.000000 0.000000 0.000000 0.000000 0.000000 0.000000 0.000000
260740.61000061 2147575.05999756 828.28997803 1 1 0 2.000000 215371440.000000 -3.000000 17235.000000 0.000000 0.000000 0.000000 0.000000 0.000000 0.000000
260755.43000031 2147531.42000008 832.40002441 1 1 0 2.000000 215371440.000000 -7.000000 29032.000000 0.000000 0.000000 0.000000 0.000000 0.000000 0.000000
260728.84999847 2147617.00000000 844.60998535 1 1 0 2.000000 215371440.000000 0.000000 32592.000000 0.000000 0.000000 0.000000 0.000000 0.000000 0.000000
260731.18000031 2147612.51999664 845.50000000 1 1 0 2.000000 215371440.000000 -1.000000 22150.000000 0.000000 0.000000 0.000000 0.000000 0.000000 0.000000
260733.06999969 2147606.98999786 846.44000244 1 1 0 2.000000 215371440.000000 -1.000000 17432.000000 0.000000 0.000000 0.000000 0.000000 0.000000 0.000000
260748.59999847 2147569.90000153 834.29998779 1 1 0 2.000000 215371440.000000 -4.000000 29010.000000 0.000000 0.000000 0.000000 0.000000 0.000000 0.000000
260734.22000122 2147609.12000275 848.50000000 1 1 0 2.000000 215371440.000000 -1.000000 20534.000000 0.000000 0.000000 0.000000 0.000000 0.000000 0.000000
260735.30000305 2147605.97000122 848.21002197 1 1 0 2.000000 215371440.000000 -1.000000 20840.000000 0.000000 0.000000 0.000000 0.000000 0.000000 0.000000
260736.11000061 2147603.58999634 848.17999268 1 1 0 2.000000 215371440.000000 -1.000000 21080.000000 0.000000 0.000000 0.000000 0.000000 0.000000 0.000000
260740.22999954 2147591.48999786 841.96002197 1 1 0 2.000000 215371440.000000 -2.000000 28813.000000 0.000000 0.000000 0.000000 0.000000 0.000000 0.000000
260741.63999939 2147589.44000244 839.78997803 1 1 0 2.000000 215371440.000000 -3.000000 26061.000000 0.000000 0.000000 0.000000 0.000000 0.000000 0.000000
260742.22999954 2147587.70999908 837.16998291 1 1 0 2.000000 215371440.000000 -3.000000 26082.000000 0.000000 0.000000 0.000000 0.000000 0.000000 0.000000
260726.87999725 2147633.07000732 861.27001953 1 1 0 2.000000 215371440.000000 1.000000 29075.000000 0.000000 0.000000 0.000000 0.000000 0.000000 0.000000
260737.95000076 2147607.77999878 850.39001465 1 1 0 2.000000 215371440.000000 -1.000000 25886.000000 0.000000 0.000000 0.000000 0.000000 0.000000 0.000000
260736.04000092 2147608.58999634 849.28997803 1 1 0 2.000000 215371440.000000 -1.000000 20818.000000 0.000000 0.000000 0.000000 0.000000 0.000000 0.000000
260737.41999817 2147610.76999664 851.40002441 1 1 0 2.000000 215371440.000000 -1.000000 27000.000000 0.000000 0.000000 0.000000 0.000000 0.000000 0.000000
260742.06999969 2147597.30999756 847.78997803 1 1 0 2.000000 215371440.000000 -2.000000 20577.000000 0.000000 0.000000 0.000000 0.000000 0.000000 0.000000
260754.88000107 2147560.29000092 840.45001221 1 1 0 2.000000 215371440.000000 -5.000000 22128.000000 0.000000 0.000000 0.000000 0.000000 0.000000 0.000000
260729.36000061 2147632.75999451 863.26000977 1 1 0 2.000000 215371440.000000 1.000000 27874.000000 0.000000 0.000000 0.000000 0.000000 0.000000 0.000000
260730.40000153 2147631.08999634 862.32000732 1 1 0 2.000000 215371440.000000 1.000000 24815.000000 0.000000 0.000000 0.000000 0.000000 0.000000 0.000000
260739.18999863 2147609.79000092 853.28002930 1 1 0 2.000000 215371440.000000 -1.000000 28529.000000 0.000000 0.000000 0.000000 0.000000 0.000000 0.000000
260742.45999908 2147600.31999969 851.83001709 1 1 0 1.000000 215371440.000000 -2.000000 20883.000000 0.000000 0.000000 0.000000 0.000000 0.000000 0.000000
260751.91999817 2147572.77999878 840.19000244 1 1 0 2.000000 215371440.000000 -4.000000 21670.000000 0.000000 0.000000 0.000000 0.000000 0.000000 0.000000
260732.19999695 2147630.11999512 860.59997559 1 1 0 2.000000 215371440.000000 0.000000 26716.000000 0.000000 0.000000 0.000000 0.000000 0.000000 0.000000
260741.00000000 2147609.12000275 855.17999268 1 1 0 2.000000 215371440.000000 -1.000000 25493.000000 0.000000 0.000000 0.000000 0.000000 0.000000 0.000000
260754.43000031 2147578.09999847 842.33001709 1 1 0 2.000000 215371440.000000 -4.000000 19485.000000 0.000000 0.000000 0.000000 0.000000 0.000000 0.000000
260734.97000122 2147631.58999634 868.04998779 1 1 0 2.000000 215371440.000000 0.000000 27131.000000 0.000000 0.000000 0.000000 0.000000 0.000000 0.000000
260740.33000183 2147616.05999756 856.60998535 1 1 0 2.000000 215371440.000000 -1.000000 29643.000000 0.000000 0.000000 0.000000 0.000000 0.000000 0.000000
260749.18999863 2147594.12000275 848.78002930 1 1 0 2.000000 215371440.000000 -3.000000 21473.000000 0.000000 0.000000 0.000000 0.000000 0.000000 0.000000
260739.13000107 2147628.77000427 868.17999268 1 1 0 2.000000 215371440.000000 0.000000 30823.000000 0.000000 0.000000 0.000000 0.000000 0.000000 0.000000
260742.95000076 2147620.19000244 863.98999023 1 1 0 2.000000 215371440.000000 -1.000000 29927.000000 0.000000 0.000000 0.000000 0.000000 0.000000 0.000000
260756.61999893 2147589.29000092 849.00000000 1 1 0 2.000000 215371440.000000 -3.000000 25930.000000 0.000000 0.000000 0.000000 0.000000 0.000000 0.000000
260748.08000183 2147612.44000244 864.19000244 1 1 0 2.000000 215371440.000000 -1.000000 23527.000000 0.000000 0.000000 0.000000 0.000000 0.000000 0.000000
260755.34000015 2147591.62999725 849.34002686 1 1 0 2.000000 215371440.000000 -3.000000 24728.000000 0.000000 0.000000 0.000000 0.000000 0.000000 0.000000
260741.25999832 2147627.36000061 867.16998291 1 1 0 2.000000 215371440.000000 0.000000 24160.000000 0.000000 0.000000 0.000000 0.000000 0.000000 0.000000
260750.04999924 2147610.31999969 863.90997314 1 1 0 2.000000 215371440.000000 -2.000000 24510.000000 0.000000 0.000000 0.000000 0.000000 0.000000 0.000000
260755.13999939 2147631.10000610 871.66998291 1 1 0 2.000000 215371440.000000 0.000000 30648.000000 0.000000 0.000000 0.000000 0.000000 0.000000 0.000000
260758.25999832 2147494.55000019 815.22998047 1 1 0 2.000000 215371440.000000 -9.000000 32920.000000 0.000000 0.000000 0.000000 0.000000 0.000000 0.000000
260763.74000168 2147483.29999924 815.95001221 1 1 0 2.000000 215371440.000000 -10.000000 35891.000000 0.000000 0.000000 0.000000 0.000000 0.000000 0.000000
260763.49000168 2147485.77999973 818.08001709 1 1 0 2.000000 215371440.000000 -10.000000 33510.000000 0.000000 0.000000 0.000000 0.000000 0.000000 0.000000
260763.59000015 2147490.72000027 819.55999756 1 1 0 2.000000 215371440.000000 -9.000000 32483.000000 0.000000 0.000000 0.000000 0.000000 0.000000 0.000000
260765.97000122 2147494.82000017 821.26000977 1 1 0 2.000000 215371440.000000 -9.000000 26913.000000 0.000000 0.000000 0.000000 0.000000 0.000000 0.000000
260769.03000069 2147485.77000046 822.29998779 1 1 0 2.000000 215371440.000000 -10.000000 34274.000000 0.000000 0.000000 0.000000 0.000000 0.000000 0.000000
260765.29999924 2147500.89999998 820.88000488 1 1 0 2.000000 215371440.000000 -9.000000 33488.000000 0.000000 0.000000 0.000000 0.000000 0.000000 0.000000
260766.15000153 2147498.38999999 820.84002686 1 1 0 2.000000 215371440.000000 -9.000000 27808.000000 0.000000 0.000000 0.000000 0.000000 0.000000 0.000000
260772.73999977 2147485.59000015 824.76000977 1 1 0 2.000000 215371440.000000 -10.000000 33488.000000 0.000000 0.000000 0.000000 0.000000 0.000000 0.000000
260773.57999992 2147483.12999916 825.02001953 1 1 0 2.000000 215371440.000000 -10.000000 35126.000000 0.000000 0.000000 0.000000 0.000000 0.000000 0.000000
260774.57999992 2147484.82999992 825.73999023 1 1 0 2.000000 215371440.000000 -10.000000 37529.000000 0.000000 0.000000 0.000000 0.000000 0.000000 0.000000
260776.40999985 2147485.69999981 827.07000732 1 1 0 2.000000 215371440.000000 -10.000000 35410.000000 0.000000 0.000000 0.000000 0.000000 0.000000 0.000000
260777.26000023 2147483.20999908 827.19000244 1 1 0 2.000000 215371440.000000 -10.000000 27524.000000 0.000000 0.000000 0.000000 0.000000 0.000000 0.000000
260775.06999969 2147493.15000010 828.33001709 1 1 0 2.000000 215371440.000000 -10.000000 27481.000000 0.000000 0.000000 0.000000 0.000000 0.000000 0.000000
260775.92000008 2147490.69999981 828.59997559 1 1 0 2.000000 215371440.000000 -10.000000 29949.000000 0.000000 0.000000 0.000000 0.000000 0.000000 0.000000
260777.11000061 2147488.68999958 829.03002930 1 1 0 2.000000 215371440.000000 -10.000000 27874.000000 0.000000 0.000000 0.000000 0.000000 0.000000 0.000000
260778.31999969 2147490.60999966 830.17999268 1 1 0 2.000000 215371440.000000 -10.000000 30517.000000 0.000000 0.000000 0.000000 0.000000 0.000000 0.000000
260779.20999908 2147488.02000046 829.57000732 1 1 0 2.000000 215371440.000000 -10.000000 30408.000000 0.000000 0.000000 0.000000 0.000000 0.000000 0.000000
260780.47999954 2147486.31000042 829.80999756 1 1 0 2.000000 215371440.000000 -10.000000 30277.000000 0.000000 0.000000 0.000000 0.000000 0.000000 0.000000
260776.54999924 2147496.76999998 829.59997559 1 1 0 2.000000 215371440.000000 -10.000000 28092.000000 0.000000 0.000000 0.000000 0.000000 0.000000 0.000000
260779.20000076 2147493.61000013 831.22998047 1 1 0 2.000000 215371440.000000 -10.000000 31762.000000 0.000000 0.000000 0.000000 0.000000 0.000000 0.000000
260780.02000046 2147491.23999977 832.11999512 1 1 0 2.000000 215371440.000000 -10.000000 33684.000000 0.000000 0.000000 0.000000 0.000000 0.000000 0.000000
260780.62999916 2147489.47000027 831.39001465 1 1 0 2.000000 215371440.000000 -10.000000 32112.000000 0.000000 0.000000 0.000000 0.000000 0.000000 0.000000
260782.15999985 2147485.03999996 829.96002197 1 1 0 2.000000 215371440.000000 -11.000000 33248.000000 0.000000 0.000000 0.000000 0.000000 0.000000 0.000000
260781.20000076 2147493.00000000 832.90997314 1 1 0 2.000000 215371440.000000 -10.000000 37180.000000 0.000000 0.000000 0.000000 0.000000 0.000000 0.000000
260782.06999969 2147490.48999977 832.70001221 1 1 0 2.000000 215371440.000000 -10.000000 34820.000000 0.000000 0.000000 0.000000 0.000000 0.000000 0.000000
260782.97999954 2147487.85999966 831.94000244 1 1 0 2.000000 215371440.000000 -10.000000 31085.000000 0.000000 0.000000 0.000000 0.000000 0.000000 0.000000
260783.87000084 2147485.28999996 831.52001953 1 1 0 2.000000 215371440.000000 -11.000000 35716.000000 0.000000 0.000000 0.000000 0.000000 0.000000 0.000000
260784.90999985 2147483.03000069 831.61999512 1 1 0 2.000000 215371440.000000 -11.000000 33226.000000 0.000000 0.000000 0.000000 0.000000 0.000000 0.000000
260780.96999931 2147498.80999994 832.98999023 1 1 0 2.000000 215371440.000000 -10.000000 24619.000000 0.000000 0.000000 0.000000 0.000000 0.000000 0.000000
260781.80999947 2147496.39000010 833.28997803 1 1 0 2.000000 215371440.000000 -10.000000 27262.000000 0.000000 0.000000 0.000000 0.000000 0.000000 0.000000
260783.48999977 2147491.55000019 833.96002197 1 1 0 2.000000 215371440.000000 -10.000000 32374.000000 0.000000 0.000000 0.000000 0.000000 0.000000 0.000000
260784.39999962 2147488.93999958 833.29998779 1 1 0 2.000000 215371440.000000 -10.000000 33073.000000 0.000000 0.000000 0.000000 0.000000 0.000000 0.000000
260785.02999973 2147487.09000015 832.39001465 1 1 0 2.000000 215371440.000000 -11.000000 35782.000000 0.000000 0.000000 0.000000 0.000000 0.000000 0.000000
260785.84000015 2147484.77000046 833.28002930 1 1 0 1.000000 215371440.000000 -11.000000 33095.000000 0.000000 0.000000 0.000000 0.000000 0.000000 0.000000
260787.64000034 2147482.95999908 834.30999756 1 1 0 2.000000 215371440.000000 -11.000000 33750.000000 0.000000 0.000000 0.000000 0.000000 0.000000 0.000000
260782.57999992 2147498.47000003 834.20001221 1 1 0 2.000000 215371440.000000 -10.000000 23832.000000 0.000000 0.000000 0.000000 0.000000 0.000000 0.000000
260785.14000034 2147491.18000031 835.03002930 1 1 0 2.000000 215371440.000000 -10.000000 33051.000000 0.000000 0.000000 0.000000 0.000000 0.000000 0.000000
260786.36999989 2147487.63000011 833.78997803 1 1 0 2.000000 215371440.000000 -11.000000 31172.000000 0.000000 0.000000 0.000000 0.000000 0.000000 0.000000
260784.09000015 2147495.50000000 834.85998535 1 1 0 2.000000 215371440.000000 -10.000000 31391.000000 0.000000 0.000000 0.000000 0.000000 0.000000 0.000000
260783.61000061 2147501.05999994 835.35998535 1 1 0 2.000000 215371440.000000 -10.000000 20425.000000 0.000000 0.000000 0.000000 0.000000 0.000000 0.000000
260784.75000000 2147497.80999994 835.55999756 1 1 0 2.000000 215371440.000000 -10.000000 32811.000000 0.000000 0.000000 0.000000 0.000000 0.000000 0.000000
260785.56999969 2147495.44999981 836.42999268 1 1 0 2.000000 215371440.000000 -10.000000 34078.000000 0.000000 0.000000 0.000000 0.000000 0.000000 0.000000
260786.43999958 2147492.94999981 836.19000244 1 1 0 2.000000 215371440.000000 -10.000000 31063.000000 0.000000 0.000000 0.000000 0.000000 0.000000 0.000000
260787.34000015 2147490.36999989 835.60998535 1 1 0 2.000000 215371440.000000 -10.000000 32920.000000 0.000000 0.000000 0.000000 0.000000 0.000000 0.000000
260788.98999977 2147488.53999996 836.59002686 1 1 0 2.000000 215371440.000000 -11.000000 31391.000000 0.000000 0.000000 0.000000 0.000000 0.000000 0.000000
260787.36999989 2147494.86000013 837.27001953 1 1 0 2.000000 215371440.000000 -10.000000 32527.000000 0.000000 0.000000 0.000000 0.000000 0.000000 0.000000
260788.22999954 2147492.38999987 837.21002197 1 1 0 2.000000 215371440.000000 -10.000000 32833.000000 0.000000 0.000000 0.000000 0.000000 0.000000 0.000000
260791.39999962 2147483.30999947 837.34997559 1 1 0 2.000000 215371440.000000 -11.000000 33488.000000 0.000000 0.000000 0.000000 0.000000 0.000000 0.000000
260788.68000031 2147496.46000004 838.39001465 1 1 0 2.000000 215371440.000000 -10.000000 29621.000000 0.000000 0.000000 0.000000 0.000000 0.000000 0.000000
260791.57999992 2147488.18000031 838.14001465 1 1 0 2.000000 215371440.000000 -11.000000 33291.000000 0.000000 0.000000 0.000000 0.000000 0.000000 0.000000
260792.76000023 2147484.82999992 837.94000244 1 1 0 2.000000 215371440.000000 -11.000000 37682.000000 0.000000 0.000000 0.000000 0.000000 0.000000 0.000000
260787.86999989 2147500.64999998 838.10998535 1 1 0 2.000000 215371440.000000 -10.000000 30167.000000 0.000000 0.000000 0.000000 0.000000 0.000000 0.000000
260788.96000004 2147499.25000000 839.05999756 1 1 0 2.000000 215371440.000000 -10.000000 27983.000000 0.000000 0.000000 0.000000 0.000000 0.000000 0.000000
260794.44999981 2147483.60000038 839.17999268 1 1 0 2.000000 215371440.000000 -11.000000 26869.000000 0.000000 0.000000 0.000000 0.000000 0.000000 0.000000
260790.51000023 2147500.51999998 840.32000732 1 1 0 2.000000 215371440.000000 -10.000000 27896.000000 0.000000 0.000000 0.000000 0.000000 0.000000 0.000000
260791.38000011 2147498.07000005 840.52001953 1 1 0 2.000000 215371440.000000 -10.000000 27721.000000 0.000000 0.000000 0.000000 0.000000 0.000000 0.000000
260792.21999979 2147495.67000008 840.76000977 1 1 0 2.000000 215371440.000000 -10.000000 30080.000000 0.000000 0.000000 0.000000 0.000000 0.000000 0.000000
260793.09999990 2147493.17999983 840.72998047 1 1 0 2.000000 215371440.000000 -11.000000 31194.000000 0.000000 0.000000 0.000000 0.000000 0.000000 0.000000
260793.90999985 2147490.88000011 841.54998779 1 1 0 2.000000 215371440.000000 -11.000000 33575.000000 0.000000 0.000000 0.000000 0.000000 0.000000 0.000000
260796.06999993 2147484.75000000 839.57000732 2 2 0 2.000000 215371440.000000 -11.000000 26694.000000 0.000000 0.000000 0.000000 0.000000 0.000000 0.000000
260796.83999991 2147483.79000092 841.28997803 1 1 0 2.000000 215371440.000000 -11.000000 34646.000000 0.000000 0.000000 0.000000 0.000000 0.000000 0.000000
260793.84000015 2147499.69000000 842.82000732 1 1 0 2.000000 215371440.000000 -10.000000 28311.000000 0.000000 0.000000 0.000000 0.000000 0.000000 0.000000
260794.71000004 2147497.25000000 842.78002930 1 1 0 2.000000 215371440.000000 -10.000000 30299.000000 0.000000 0.000000 0.000000 0.000000 0.000000 0.000000
260795.59000015 2147494.76000023 842.65997314 1 1 0 2.000000 215371440.000000 -11.000000 33138.000000 0.000000 0.000000 0.000000 0.000000 0.000000 0.000000
260796.41000009 2147492.46999979 843.53997803 1 1 0 2.000000 215371440.000000 -11.000000 31762.000000 0.000000 0.000000 0.000000 0.000000 0.000000 0.000000
260797.97000003 2147488.06000042 841.95001221 1 1 0 2.000000 215371440.000000 -11.000000 30583.000000 0.000000 0.000000 0.000000 0.000000 0.000000 0.000000
260798.79999995 2147485.72999954 842.65997314 1 1 0 2.000000 215371440.000000 -11.000000 33903.000000 0.000000 0.000000 0.000000 0.000000 0.000000 0.000000
260799.66999999 2147483.29999924 842.90002441 1 1 0 2.000000 215371440.000000 -11.000000 36350.000000 0.000000 0.000000 0.000000 0.000000 0.000000 0.000000
260795.55000019 2147498.77999997 843.98999023 1 1 0 2.000000 215371440.000000 -10.000000 27830.000000 0.000000 0.000000 0.000000 0.000000 0.000000 0.000000
260798.13999999 2147491.47999954 844.34002686 1 1 0 2.000000 215371440.000000 -11.000000 35061.000000 0.000000 0.000000 0.000000 0.000000 0.000000 0.000000
260797.49000001 2147498.23000002 845.20001221 1 1 0 2.000000 215371440.000000 -10.000000 30539.000000 0.000000 0.000000 0.000000 0.000000 0.000000 0.000000
260798.37000000 2147495.76999998 845.28997803 1 1 0 2.000000 215371440.000000 -11.000000 31806.000000 0.000000 0.000000 0.000000 0.000000 0.000000 0.000000
260799.22000003 2147493.38999987 845.63000488 1 1 0 2.000000 215371440.000000 -11.000000 33291.000000 0.000000 0.000000 0.000000 0.000000 0.000000 0.000000
260800.11000000 2147490.89999962 845.45001221 1 1 0 2.000000 215371440.000000 -11.000000 32964.000000 0.000000 0.000000 0.000000 0.000000 0.000000 0.000000
260801.29999995 2147487.57999992 845.16998291 1 1 0 2.000000 215371440.000000 -11.000000 29032.000000 0.000000 0.000000 0.000000 0.000000 0.000000 0.000000
260802.17000008 2147485.14999962 845.40002441 1 1 0 2.000000 215371440.000000 -11.000000 28354.000000 0.000000 0.000000 0.000000 0.000000 0.000000 0.000000
260798.41999996 2147500.58999997 845.94000244 1 1 0 2.000000 215371440.000000 -10.000000 27459.000000 0.000000 0.000000 0.000000 0.000000 0.000000 0.000000
260799.59000000 2147497.33999991 846.05999756 1 1 0 2.000000 215371440.000000 -11.000000 31303.000000 0.000000 0.000000 0.000000 0.000000 0.000000 0.000000
260800.44000000 2147494.94000006 846.25000000 1 1 0 2.000000 215371440.000000 -11.000000 32680.000000 0.000000 0.000000 0.000000 0.000000 0.000000 0.000000
260801.25999999 2147492.67000008 847.25000000 1 1 0 2.000000 215371440.000000 -11.000000 33794.000000 0.000000 0.000000 0.000000 0.000000 0.000000 0.000000
260801.89999998 2147490.86999989 846.42999268 1 1 0 2.000000 215371440.000000 -11.000000 32265.000000 0.000000 0.000000 0.000000 0.000000 0.000000 0.000000
260804.26000023 2147484.25000000 846.05999756 1 1 0 2.000000 215371440.000000 -12.000000 31172.000000 0.000000 0.000000 0.000000 0.000000 0.000000 0.000000
260799.86000000 2147499.38999999 846.98999023 1 1 0 2.000000 215371440.000000 -10.000000 32549.000000 0.000000 0.000000 0.000000 0.000000 0.000000 0.000000
260805.73999977 2147483.04000092 846.94000244 1 1 0 2.000000 215371440.000000 -12.000000 26257.000000 0.000000 0.000000 0.000000 0.000000 0.000000 0.000000
260803.24000001 2147488.52999973 846.41998291 1 1 0 2.000000 215371440.000000 -11.000000 33248.000000 0.000000 0.000000 0.000000 0.000000 0.000000 0.000000
260801.47000003 2147500.77999997 848.10998535 1 1 0 2.000000 215371440.000000 -10.000000 31806.000000 0.000000 0.000000 0.000000 0.000000 0.000000 0.000000
260802.30999994 2147498.45000005 848.86999512 1 1 0 2.000000 215371440.000000 -11.000000 31347.000000 0.000000 0.000000 0.000000 0.000000 0.000000 0.000000
260803.21000004 2147495.92999983 848.38000488 1 1 0 2.000000 215371440.000000 -11.000000 32002.000000 0.000000 0.000000 0.000000 0.000000 0.000000 0.000000
260804.03999996 2147493.63999987 849.15997314 1 1 0 2.000000 215371440.000000 -11.000000 32985.000000 0.000000 0.000000 0.000000 0.000000 0.000000 0.000000
260804.92000008 2147491.18000031 849.03002930 1 1 0 2.000000 215371440.000000 -11.000000 31718.000000 0.000000 0.000000 0.000000 0.000000 0.000000 0.000000
260806.28999996 2147489.57999992 849.59002686 1 1 0 1.000000 215371440.000000 -11.000000 34340.000000 0.000000 0.000000 0.000000 0.000000 0.000000 0.000000
260806.96999979 2147487.69999981 848.35998535 1 1 0 2.000000 215371440.000000 -11.000000 26104.000000 0.000000 0.000000 0.000000 0.000000 0.000000 0.000000
260804.88000011 2147495.48000002 849.47998047 1 1 0 2.000000 215371440.000000 -11.000000 33379.000000 0.000000 0.000000 0.000000 0.000000 0.000000 0.000000
260805.69999981 2147493.21000004 850.45001221 1 1 0 2.000000 215371440.000000 -11.000000 35454.000000 0.000000 0.000000 0.000000 0.000000 0.000000 0.000000
260804.42999983 2147500.50999999 850.00000000 1 1 0 2.000000 215371440.000000 -11.000000 34034.000000 0.000000 0.000000 0.000000 0.000000 0.000000 0.000000
260805.28999996 2147498.15999997 850.42999268 1 1 0 2.000000 215371440.000000 -11.000000 31697.000000 0.000000 0.000000 0.000000 0.000000 0.000000 0.000000
260807.61999989 2147491.68999958 850.46002197 1 1 0 2.000000 215371440.000000 -11.000000 35541.000000 0.000000 0.000000 0.000000 0.000000 0.000000 0.000000
260809.14000034 2147487.50000000 849.88000488 1 1 0 2.000000 215371440.000000 -12.000000 31784.000000 0.000000 0.000000 0.000000 0.000000 0.000000 0.000000
260810.02000046 2147485.06000042 849.91998291 1 1 0 2.000000 215371440.000000 -12.000000 32964.000000 0.000000 0.000000 0.000000 0.000000 0.000000 0.000000
260811.39000034 2147483.15999985 850.76000977 1 1 0 2.000000 215371440.000000 -12.000000 33990.000000 0.000000 0.000000 0.000000 0.000000 0.000000 0.000000
260806.03000021 2147500.23999999 851.26000977 1 1 0 2.000000 215371440.000000 -11.000000 32833.000000 0.000000 0.000000 0.000000 0.000000 0.000000 0.000000
260808.61999989 2147493.09999990 852.08001709 1 1 0 2.000000 215371440.000000 -11.000000 31959.000000 0.000000 0.000000 0.000000 0.000000 0.000000 0.000000
260809.80000019 2147489.82999992 852.10998535 1 1 0 2.000000 215371440.000000 -12.000000 33051.000000 0.000000 0.000000 0.000000 0.000000 0.000000 0.000000
260813.05000019 2147485.13000011 852.21002197 1 1 0 2.000000 215371440.000000 -12.000000 33248.000000 0.000000 0.000000 0.000000 0.000000 0.000000 0.000000
260808.86999989 2147496.59999990 852.76000977 1 1 0 2.000000 215371440.000000 -11.000000 34646.000000 0.000000 0.000000 0.000000 0.000000 0.000000 0.000000
260810.64999962 2147491.68999958 852.59997559 1 1 0 2.000000 215371440.000000 -11.000000 32505.000000 0.000000 0.000000 0.000000 0.000000 0.000000 0.000000
260811.85999966 2147488.39000034 852.20001221 1 1 0 2.000000 215371440.000000 -12.000000 32090.000000 0.000000 0.000000 0.000000 0.000000 0.000000 0.000000
260807.69999981 2147501.00999999 852.78997803 1 1 0 2.000000 215371440.000000 -11.000000 36830.000000 0.000000 0.000000 0.000000 0.000000 0.000000 0.000000
260810.03999996 2147494.61000013 853.11999512 1 1 0 2.000000 215371440.000000 -11.000000 31522.000000 0.000000 0.000000 0.000000 0.000000 0.000000 0.000000
260814.22000027 2147483.18000031 852.72998047 1 1 0 2.000000 215371440.000000 -12.000000 29731.000000 0.000000 0.000000 0.000000 0.000000 0.000000 0.000000
260810.27000046 2147497.57999992 853.83001709 1 1 0 2.000000 215371440.000000 -11.000000 30517.000000 0.000000 0.000000 0.000000 0.000000 0.000000 0.000000
260811.73999977 2147493.57000017 854.10998535 1 1 0 2.000000 215371440.000000 -11.000000 35629.000000 0.000000 0.000000 0.000000 0.000000 0.000000 0.000000
260812.64999962 2147491.06000042 853.63000488 1 1 0 2.000000 215371440.000000 -12.000000 32680.000000 0.000000 0.000000 0.000000 0.000000 0.000000 0.000000
260813.55000019 2147488.57999992 853.40997314 1 1 0 2.000000 215371440.000000 -12.000000 31434.000000 0.000000 0.000000 0.000000 0.000000 0.000000 0.000000
260814.44999981 2147486.13000011 853.28997803 1 1 0 2.000000 215371440.000000 -12.000000 31129.000000 0.000000 0.000000 0.000000 0.000000 0.000000 0.000000
260816.04999924 2147484.68000031 853.89001465 1 1 0 2.000000 215371440.000000 -12.000000 30189.000000 0.000000 0.000000 0.000000 0.000000 0.000000 0.000000
260811.82999992 2147496.20000005 854.82000732 1 1 0 2.000000 215371440.000000 -11.000000 33510.000000 0.000000 0.000000 0.000000 0.000000 0.000000 0.000000
260811.92000008 2147500.77999997 855.46002197 1 1 0 2.000000 215371440.000000 -11.000000 32876.000000 0.000000 0.000000 0.000000 0.000000 0.000000 0.000000
260812.80000019 2147498.38000000 855.55999756 1 1 0 2.000000 215371440.000000 -11.000000 31675.000000 0.000000 0.000000 0.000000 0.000000 0.000000 0.000000
260813.65999985 2147496.02999997 855.96997070 1 1 0 2.000000 215371440.000000 -11.000000 31675.000000 0.000000 0.000000 0.000000 0.000000 0.000000 0.000000
260814.56000042 2147493.57000017 855.75000000 1 1 0 2.000000 215371440.000000 -12.000000 36655.000000 0.000000 0.000000 0.000000 0.000000 0.000000 0.000000
260816.97999954 2147486.96000004 855.11999512 1 1 0 2.000000 215371440.000000 -12.000000 32286.000000 0.000000 0.000000 0.000000 0.000000 0.000000 0.000000
260817.87999916 2147484.51000023 855.08001709 1 1 0 2.000000 215371440.000000 -12.000000 29665.000000 0.000000 0.000000 0.000000 0.000000 0.000000 0.000000
260816.10000038 2147491.56000042 856.46002197 1 1 0 2.000000 215371440.000000 -12.000000 33575.000000 0.000000 0.000000 0.000000 0.000000 0.000000 0.000000
260815.31000042 2147495.15000010 857.09997559 1 1 0 2.000000 215371440.000000 -11.000000 32286.000000 0.000000 0.000000 0.000000 0.000000 0.000000 0.000000
260818.63999939 2147486.06999969 856.13000488 1 1 0 2.000000 215371440.000000 -12.000000 32265.000000 0.000000 0.000000 0.000000 0.000000 0.000000 0.000000
260819.54000092 2147483.62000084 856.03997803 1 1 0 2.000000 215371440.000000 -12.000000 27328.000000 0.000000 0.000000 0.000000 0.000000 0.000000 0.000000
260817.57999992 2147492.94999981 857.48999023 1 1 0 2.000000 215371440.000000 -12.000000 36328.000000 0.000000 0.000000 0.000000 0.000000 0.000000 0.000000
260818.47999954 2147490.50000000 857.40997314 1 1 0 2.000000 215371440.000000 -12.000000 28158.000000 0.000000 0.000000 0.000000 0.000000 0.000000 0.000000
260814.90999985 2147500.18000001 857.45001221 1 1 0 2.000000 215371440.000000 -11.000000 31260.000000 0.000000 0.000000 0.000000 0.000000 0.000000 0.000000
260815.77000046 2147497.85999990 857.91998291 1 1 0 2.000000 215371440.000000 -11.000000 30910.000000 0.000000 0.000000 0.000000 0.000000 0.000000 0.000000
260816.94000053 2147496.17000008 858.33001709 1 1 0 2.000000 215371440.000000 -11.000000 33947.000000 0.000000 0.000000 0.000000 0.000000 0.000000 0.000000
260819.68000031 2147488.76000023 857.40002441 1 1 0 2.000000 215371440.000000 -12.000000 33925.000000 0.000000 0.000000 0.000000 0.000000 0.000000 0.000000
260820.54999924 2147486.42000008 857.82000732 1 1 0 2.000000 215371440.000000 -12.000000 32417.000000 0.000000 0.000000 0.000000 0.000000 0.000000 0.000000
260821.46999931 2147483.92000008 857.47998047 1 1 0 2.000000 215371440.000000 -12.000000 27568.000000 0.000000 0.000000 0.000000 0.000000 0.000000 0.000000
260818.22999954 2147494.38999987 858.71997070 1 1 0 2.000000 215371440.000000 -12.000000 34689.000000 0.000000 0.000000 0.000000 0.000000 0.000000 0.000000
260817.69000053 2147500.31999999 859.52001953 1 1 0 2.000000 215371440.000000 -11.000000 33291.000000 0.000000 0.000000 0.000000 0.000000 0.000000 0.000000
260818.54999924 2147498.00000000 859.85998535 1 1 0 2.000000 215371440.000000 -11.000000 34820.000000 0.000000 0.000000 0.000000 0.000000 0.000000 0.000000
260820.06999969 2147493.90000010 859.59997559 1 1 0 2.000000 215371440.000000 -12.000000 34580.000000 0.000000 0.000000 0.000000 0.000000 0.000000 0.000000
260820.98999977 2147491.39999962 859.10998535 1 1 0 2.000000 215371440.000000 -12.000000 32243.000000 0.000000 0.000000 0.000000 0.000000 0.000000 0.000000
260821.87999916 2147489.01000023 859.28997803 1 1 0 2.000000 215371440.000000 -12.000000 30998.000000 0.000000 0.000000 0.000000 0.000000 0.000000 0.000000
260819.37999916 2147495.86000013 859.75000000 1 1 0 2.000000 215371440.000000 -12.000000 31740.000000 0.000000 0.000000 0.000000 0.000000 0.000000 0.000000
260821.75000000 2147492.96000004 860.34002686 1 1 0 2.000000 215371440.000000 -12.000000 34820.000000 0.000000 0.000000 0.000000 0.000000 0.000000 0.000000
260820.21999931 2147497.13000011 861.16998291 1 1 0 2.000000 215371440.000000 -12.000000 32833.000000 0.000000 0.000000 0.000000 0.000000 0.000000 0.000000
260820.55999947 2147500.25999999 861.48999023 1 1 0 2.000000 215371440.000000 -11.000000 30539.000000 0.000000 0.000000 0.000000 0.000000 0.000000 0.000000
260822.04000092 2147496.27999997 861.61999512 1 1 0 2.000000 215371440.000000 -12.000000 32942.000000 0.000000 0.000000 0.000000 0.000000 0.000000 0.000000
260822.20000076 2147499.31999999 862.94000244 1 1 0 2.000000 215371440.000000 -12.000000 34296.000000 0.000000 0.000000 0.000000 0.000000 0.000000 0.000000
260757.41999817 2147509.06000042 818.45001221 1 1 0 2.000000 215371440.000000 -8.000000 31675.000000 0.000000 0.000000 0.000000 0.000000 0.000000 0.000000
260758.27000046 2147506.51999998 818.20001221 1 1 0 2.000000 215371440.000000 -8.000000 31347.000000 0.000000 0.000000 0.000000 0.000000 0.000000 0.000000
260759.15000153 2147503.90000010 817.64001465 1 1 0 2.000000 215371440.000000 -8.000000 30692.000000 0.000000 0.000000 0.000000 0.000000 0.000000 0.000000
260760.95999908 2147513.68999958 822.89001465 1 1 0 2.000000 215371440.000000 -8.000000 31456.000000 0.000000 0.000000 0.000000 0.000000 0.000000 0.000000
260764.13000107 2147504.34000015 821.41998291 1 1 0 2.000000 215371440.000000 -9.000000 28180.000000 0.000000 0.000000 0.000000 0.000000 0.000000 0.000000
260761.68999863 2147511.14999962 822.03997803 1 1 0 2.000000 215371440.000000 -8.000000 29862.000000 0.000000 0.000000 0.000000 0.000000 0.000000 0.000000
260771.51000023 2147502.55999994 825.10998535 1 1 0 2.000000 215371440.000000 -9.000000 29097.000000 0.000000 0.000000 0.000000 0.000000 0.000000 0.000000
260759.61999893 2147534.83000183 836.53997803 1 1 0 2.000000 215371440.000000 -7.000000 17301.000000 0.000000 0.000000 0.000000 0.000000 0.000000 0.000000
260766.75999832 2147513.89999962 826.32000732 1 1 0 2.000000 215371440.000000 -8.000000 28704.000000 0.000000 0.000000 0.000000 0.000000 0.000000 0.000000
260767.61000061 2147511.39000034 826.36999512 1 1 0 2.000000 215371440.000000 -8.000000 28857.000000 0.000000 0.000000 0.000000 0.000000 0.000000 0.000000
260768.48999977 2147508.84000015 825.86999512 1 1 0 2.000000 215371440.000000 -9.000000 30408.000000 0.000000 0.000000 0.000000 0.000000 0.000000 0.000000
260769.94000053 2147504.59999990 825.26000977 1 1 0 2.000000 215371440.000000 -9.000000 29665.000000 0.000000 0.000000 0.000000 0.000000 0.000000 0.000000
260764.50999832 2147525.45999908 831.65997314 1 1 0 2.000000 215371440.000000 -7.000000 31194.000000 0.000000 0.000000 0.000000 0.000000 0.000000 0.000000
260765.11000061 2147523.70999908 830.75000000 1 1 0 2.000000 215371440.000000 -8.000000 34515.000000 0.000000 0.000000 0.000000 0.000000 0.000000 0.000000
260767.31999969 2147523.48999977 831.84002686 1 1 0 2.000000 215371440.000000 -8.000000 27568.000000 0.000000 0.000000 0.000000 0.000000 0.000000 0.000000
260768.52000046 2147520.00000000 830.32000732 1 1 0 2.000000 215371440.000000 -8.000000 30146.000000 0.000000 0.000000 0.000000 0.000000 0.000000 0.000000
260762.88999939 2147535.41999817 839.54998779 1 1 0 2.000000 215371440.000000 -7.000000 23942.000000 0.000000 0.000000 0.000000 0.000000 0.000000 0.000000
260771.20999908 2147521.81999969 832.69000244 1 1 0 2.000000 215371440.000000 -8.000000 31587.000000 0.000000 0.000000 0.000000 0.000000 0.000000 0.000000
260774.17000008 2147508.18000031 829.08001709 1 1 0 2.000000 215371440.000000 -9.000000 28551.000000 0.000000 0.000000 0.000000 0.000000 0.000000 0.000000
260757.68000031 2147561.63000107 843.30999756 1 1 0 2.000000 215371440.000000 -5.000000 16252.000000 0.000000 0.000000 0.000000 0.000000 0.000000 0.000000
260772.11000061 2147520.00000000 832.46002197 1 1 0 2.000000 215371440.000000 -8.000000 33728.000000 0.000000 0.000000 0.000000 0.000000 0.000000 0.000000
260772.96999931 2147517.51000023 832.10998535 1 1 0 2.000000 215371440.000000 -8.000000 28354.000000 0.000000 0.000000 0.000000 0.000000 0.000000 0.000000
260773.94000053 2147514.47999954 831.73999023 1 1 0 2.000000 215371440.000000 -8.000000 29468.000000 0.000000 0.000000 0.000000 0.000000 0.000000 0.000000
260778.79000092 2147514.89000034 834.29998779 1 1 0 2.000000 215371440.000000 -9.000000 25449.000000 0.000000 0.000000 0.000000 0.000000 0.000000 0.000000
260782.31999969 2147504.73999977 832.48999023 1 1 0 2.000000 215371440.000000 -9.000000 19616.000000 0.000000 0.000000 0.000000 0.000000 0.000000 0.000000
260776.97999954 2147515.92000008 833.86999512 1 1 0 2.000000 215371440.000000 -8.000000 25034.000000 0.000000 0.000000 0.000000 0.000000 0.000000 0.000000
260769.04999924 2147537.27000046 843.78002930 1 1 0 2.000000 215371440.000000 -7.000000 16514.000000 0.000000 0.000000 0.000000 0.000000 0.000000 0.000000
260759.56000137 2147572.47000122 850.52001953 1 1 0 2.000000 215371440.000000 -4.000000 22369.000000 0.000000 0.000000 0.000000 0.000000 0.000000 0.000000
260758.65000153 2147572.70999908 847.17999268 1 1 0 2.000000 215371440.000000 -4.000000 17301.000000 0.000000 0.000000 0.000000 0.000000 0.000000 0.000000
260776.18000031 2147526.95999908 838.47998047 1 1 0 2.000000 215371440.000000 -8.000000 32090.000000 0.000000 0.000000 0.000000 0.000000 0.000000 0.000000
260763.56000137 2147568.20999908 852.61999512 1 1 0 2.000000 215371440.000000 -5.000000 15378.000000 0.000000 0.000000 0.000000 0.000000 0.000000 0.000000
260786.23999977 2147503.43000007 840.79998779 1 1 0 1.000000 215371440.000000 -10.000000 19354.000000 0.000000 0.000000 0.000000 0.000000 0.000000 0.000000
260765.43000031 2147557.90000153 849.34997559 1 1 0 2.000000 215371440.000000 -6.000000 14417.000000 0.000000 0.000000 0.000000 0.000000 0.000000 0.000000
260785.09000015 2147507.17999983 839.88000488 1 1 0 2.000000 215371440.000000 -9.000000 15225.000000 0.000000 0.000000 0.000000 0.000000 0.000000 0.000000
260785.59000015 2147505.76999998 841.28997803 1 1 0 2.000000 215371440.000000 -10.000000 20468.000000 0.000000 0.000000 0.000000 0.000000 0.000000 0.000000
